# .PCD v0.7 - Point Cloud Data file format
VERSION 0.7
FIELDS x y z
SIZE 4 4 4
TYPE F F F
COUNT 1 1 1
WIDTH 1589
HEIGHT 1
VIEWPOINT 0 0 0 1 0 0 0
POINTS 1589
DATA ascii
-0.0432039 0.126272 0.215619 
-0.133873 0.252153 0.0482035 
-0.112915 0.1982 0.331542 
0.109563 0.163054 0.180068 
0.0415773 0.323815 -0.24729 
0.297054 -0.0129866 0.0370082 
0.115271 0.113633 0.397707 
0.101586 -0.9783 0.108276 
-0.144406 0.104976 -0.320305 
-0.0211581 0.0998822 -0.40709 
-0.20636 -0.89421 -0.121682 
0.107459 -0.592075 0.19974 
-0.0564116 -0.416783 -0.0056935 
0.213899 0.158177 -0.196252 
-0.00778786 0.000914148 -0.245254 
0.000254488 0.111393 -0.343483 
0.00713346 0.298145 0.0617215 
-0.132874 -0.925497 -0.033526 
0.212816 0.0751292 -0.105054 
-0.0711066 0.226292 0.0549393 
-0.0673845 0.142553 -0.284692 
0.0547379 0.111901 0.177298 
-0.0356758 0.333437 0.162705 
-0.0319378 0.338855 -0.0926227 
0.177933 -0.319722 0.0976002 
0.148921 0.0433139 0.340541 
-0.0090077 0.0867884 -0.27558 
0.160819 -0.781845 0.042193 
-0.125084 0.22708 0.0842334 
-0.367125 0.0204356 0.195419 
-0.439237 0.0652192 0.0621757 
-0.0743963 0.198065 0.210302 
-0.0144089 0.170093 0.0470827 
-0.114489 0.295443 0.131754 
0.0410638 0.457651 -0.162752 
-0.143484 -0.233787 -0.025996 
0.23615 0.14612 0.316758 
0.186847 0.0962053 -0.286996 
0.148193 -0.529896 0.0816295 
-0.0882216 0.279731 0.29658 
-0.107449 0.329655 -0.0365631 
-0.0769992 -0.734632 0.133224 
-0.170119 0.171594 0.305321 
-0.0613315 0.380739 0.100349 
0.259717 0.119425 -0.145599 
-0.0189745 -0.429675 -0.119911 
0.346135 -0.0129512 -0.138133 
-0.0424404 0.294017 -0.11407 
-0.0105884 -0.160597 -0.134636 
-0.102512 0.0287979 -0.345902 
0.0240382 0.115359 0.30314 
0.208763 -0.434675 0.101173 
-0.0499487 0.329683 -0.250695 
0.0264174 -0.734632 -0.0223191 
0.195936 0.202325 0.236562 
0.123719 0.159848 0.245406 
-0.0867045 -0.221829 0.102746 
0.0417399 0.0255571 -0.301266 
-0.141491 -0.468308 -0.0196689 
0.315071 0.0186079 -0.0686176 
0.0449371 -0.921708 -0.0725105 
-0.159326 -0.704923 -0.115657 
-0.0379152 0.369969 0.01769 
-0.0726623 0.0736377 0.221219 
0.320807 0.00927412 0.00329435 
-0.201506 -0.501217 -0.0766967 
0.327468 0.109343 0.0490615 
0.010526 0.427271 -0.187612 
-0.0952935 0.158813 0.414156 
0.0850085 -0.734632 0.0588626 
-0.162518 0.150601 0.337337 
-0.0405774 -0.657104 -0.0792363 
-0.401413 0.00587951 0.0510559 
0.00135994 0.0072172 -0.376393 
-0.135844 0.320549 0.0708841 
-0.0094807 -0.705865 -0.185722 
-0.0590598 0.0888576 -0.435071 
0.0818754 0.0691331 0.266484 
-0.180797 -0.980274 -0.07984 
0.0484933 0.365733 -0.193382 
-0.1765 0.110557 0.218516 
-0.23013 -0.780594 -0.0315063 
0.0564409 -0.770319 -0.1658 
0.149397 0.120607 -0.193489 
-0.135235 0.229159 0.162723 
-0.184093 0.183894 0.232117 
0.132281 0.0653792 -0.161983 
-0.117068 0.114061 0.255424 
0.0975092 -0.586425 -0.0809022 
0.021158 0.445068 -0.109137 
0.28501 0.14697 0.00337074 
-0.050239 0.240288 -0.0146746 
-0.0506914 0.365926 -0.170209 
-0.180196 0.250161 -0.00586725 
-0.086235 0.122423 0.339506 
0.121574 0.126733 0.268351 
0.0173106 0.33902 -0.125323 
0.00431693 0.322379 -0.193881 
-0.298621 -0.495489 -0.0764405 
-0.353323 -0.00890888 0.0425486 
-0.253262 -0.869552 0.026604 
-0.281854 0.00904412 0.0496047 
-0.301117 0.0883991 0.0905133 
0.180435 0.208831 -0.170032 
0.0984061 0.349361 -0.231245 
0.228606 -0.498888 -0.00558597 
0.149844 -0.86354 -0.15062 
0.104498 0.208792 0.227739 
0.00803668 0.383145 -0.0402924 
-0.128748 0.093066 0.344352 
-0.223745 0.0525185 0.0673969 
0.113032 0.089323 0.159996 
0.0591901 0.310928 -0.0659184 
0.0593748 -0.344344 -0.0187545 
0.232121 0.127117 -0.332791 
-0.231213 -0.528243 0.113856 
0.171553 0.16247 -0.128146 
-0.365017 0.0464216 0.143343 
-0.317546 -0.0395503 0.122068 
-0.318126 0.0306348 0.217597 
0.122332 0.397564 -0.154915 
0.266401 0.161036 -0.206085 
0.389368 -0.0186542 -0.0542115 
-0.126151 -0.734632 0.0263455 
0.235177 0.192555 0.282073 
-0.423334 0.031644 0.172611 
-0.125848 -0.59882 0.0200031 
-0.0756465 -0.619353 -0.126888 
0.0423858 -0.873662 -0.212442 
-0.124099 -0.380511 0.0225426 
-0.0137564 0.210051 0.0962172 
-0.0381767 0.197055 0.328434 
-0.000140357 -0.405692 -0.19668 
0.103151 -0.52417 0.167978 
0.288419 -0.0198427 -0.125243 
-0.113993 0.189323 0.0355904 
-0.0628365 0.245181 0.125588 
-0.0954632 0.080623 -0.302796 
0.300223 0.0683777 -0.0948074 
0.0592271 -0.189705 -0.048795 
-0.160373 0.219332 0.302714 
0.097403 0.447672 -0.166987 
-0.145069 -0.925287 -0.170116 
0.122207 0.140678 0.345621 
0.271359 0.0799961 0.0606615 
0.260478 0.0482809 -0.00399515 
-0.0130207 -0.70174 0.169303 
0.08733 0.32863 -0.162818 
-0.330449 0.14121 0.0914341 
0.029153 0.0574654 -0.23015 
-0.00490464 0.211708 -0.263014 
0.0439555 0.153186 -0.350336 
0.237127 0.0608046 -0.155316 
0.180731 0.0851961 0.218205 
0.219681 0.118713 0.256356 
-0.0467338 -0.414994 0.152715 
-0.0569493 0.434244 -0.133623 
0.274097 0.117821 -0.270872 
-0.10539 -0.928935 0.174578 
0.0679347 0.080423 -0.392705 
0.0548555 0.110619 -0.260046 
0.00428447 -0.217256 -0.092212 
0.0233831 0.16277 0.292483 
-0.40007 0.0441616 0.203601 
-0.221406 0.202949 0.311197 
0.111213 -0.695397 -0.132532 
-0.0688949 0.098736 -0.242343 
-0.0609489 0.0151426 -0.227447 
0.156289 0.0425778 -0.261768 
0.257956 -0.00355045 -0.0519301 
0.125452 0.16519 -0.257064 
-0.0440737 0.134058 -0.332811 
-0.0612272 0.0427109 -0.295795 
-0.174594 0.241075 0.131488 
-0.0939579 0.154591 0.27707 
-0.250438 0.0262948 0.117752 
0.146337 0.1329 0.217135 
0.226009 0.158301 -0.262405 
0.177525 0.0115326 -0.0104024 
0.113031 0.245361 0.286466 
0.0726062 -0.780563 0.160878 
-0.287249 0.0801892 0.156678 
0.14066 0.0840515 0.282066 
0.171139 0.220845 -0.274743 
0.00646623 -0.484835 0.0271798 
0.0925923 -0.824484 0.200291 
-0.0610101 0.348262 -0.0107239 
-0.0794607 0.272688 0.0305991 
0.0970061 0.0355025 0.190363 
-0.125671 -0.616877 -0.170379 
-0.111458 0.380911 -0.163748 
0.0923138 0.0667708 -0.170232 
-0.0296288 0.317259 0.0866911 
-0.0366124 -0.718289 -0.0380519 
0.00646623 -0.296597 0.0397386 
-0.0381068 0.379713 -0.0683778 
0.338634 -0.0560025 -0.0493389 
-0.265094 0.139763 0.101498 
0.0209579 0.488952 -0.0916405 
-0.393942 0.0747154 0.0258737 
0.176114 0.148037 0.187438 
-0.048845 0.203248 -0.281748 
0.121261 0.0849561 0.30546 
-0.160345 -0.683085 0.122141 
0.09211 -0.588315 0.0149103 
0.188808 0.101296 -0.186243 
0.149173 0.0997498 -0.240637 
0.0835431 0.163166 0.252086 
0.0487017 -0.678624 0.155015 
0.167003 0.172815 -0.230181 
0.262523 0.0662423 -0.128302 
-0.337039 0.0528724 0.0630876 
0.00483808 -0.657557 0.0619922 
-0.093191 0.212656 0.301827 
0.212622 0.0883553 0.00456473 
-0.0439104 -0.933662 -0.114946 
-0.0904323 -0.613842 -0.255557 
-0.149464 -0.192439 0.0376063 
-0.0106115 0.0308371 0.0194057 
0.014203 0.276988 -0.0993804 
0.158897 0.0344832 -0.157064 
0.0680363 -0.203355 0.0153861 
-0.00916847 0.282138 -0.155042 
-0.0511717 0.0534924 -0.35068 
-0.0290628 0.10226 -0.326602 
-0.083848 0.356369 -0.133824 
-0.133738 -0.92653 0.0319801 
-0.195646 -0.727556 -0.00407985 
0.235732 0.101751 -0.190069 
-0.249828 0.000900301 0.0919379 
-0.175409 0.087103 0.253956 
-0.157304 0.275163 0.102437 
-0.0472812 0.200312 0.0167621 
-0.139422 -0.799681 -0.212415 
0.00761476 0.270741 0.091691 
0.266629 0.116311 -0.0825659 
-0.119761 0.159403 -0.282578 
0.356082 0.0143456 -0.0396949 
-0.0415888 0.273322 0.0306775 
-0.111251 0.0846999 0.257495 
-0.00216481 0.229153 0.316532 
0.0129592 -0.619425 0.203827 
-0.0564193 -0.894926 0.0580573 
0.210799 -0.0116842 -0.0511056 
0.00579308 0.384641 -0.14314 
-0.255062 -0.0354718 0.103783 
-0.154096 0.18024 0.210437 
0.14585 0.216708 -0.313246 
-0.248049 0.129328 0.167775 
0.056064 0.170604 0.283391 
-0.120902 -0.250281 0.0536492 
-0.306988 0.183644 0.110596 
-0.0868343 0.10193 0.192055 
0.167428 -0.881867 0.0655701 
0.0929054 -0.734632 -0.0525361 
-0.211869 -0.880054 0.115402 
0.255386 -0.0161327 -0.00110707 
-0.145676 -0.595285 -0.0418435 
-0.172858 -0.827158 0.203783 
-0.0812875 0.335956 0.0598939 
0.126182 0.051877 0.171666 
0.118831 -0.34895 0.107187 
-0.428217 0.0526724 0.115169 
0.290912 -0.0220011 -0.0650476 
-0.0481468 -0.17459 0.0868134 
-0.0778598 0.101412 0.245383 
-0.0324739 0.320707 -0.0459157 
0.110241 0.037584 0.299421 
0.0248056 0.116441 -0.300289 
-0.0809355 0.343192 -0.0943343 
-0.30351 -0.0064712 0.0665386 
-0.166023 -0.530207 0.149119 
-0.319573 0.0157995 0.156989 
0.250752 0.0486655 -0.0697987 
0.00107033 0.0425371 -0.324685 
-0.0376466 0.0866776 -0.267881 
0.350248 0.0219687 0.0698677 
-0.034434 0.172026 0.242718 
0.0332181 0.504396 -0.142133 
-0.354725 0.0973753 0.0693196 
-0.138871 0.295278 0.0316215 
0.301787 0.106768 -0.209561 
-0.368094 0.0680439 0.164201 
-0.0612755 0.329287 0.114501 
0.0421592 0.128675 0.214178 
0.0634101 -0.541347 0.118192 
-0.0639952 0.170438 0.0696214 
0.195386 -0.82056 0.0751234 
0.00252971 -0.749599 0.0385493 
0.0753439 0.0636169 0.197435 
0.0551955 -0.475283 -0.063898 
-0.0242382 0.14729 -0.386135 
0.0397608 -0.903709 0.020974 
0.184296 0.162074 0.281359 
0.107973 -0.51169 0.0395738 
0.0439374 0.0526209 0.274564 
-0.291921 0.109321 0.0245109 
0.201193 0.0627323 -0.324441 
-0.0295863 0.467743 -0.10845 
-0.0825723 0.152123 -0.328517 
0.291371 0.0679962 0.0242206 
0.0313928 0.409101 -0.12259 
-0.342762 0.023121 0.105532 
-0.167893 0.313363 0.0209271 
-0.0399616 0.188786 0.278676 
0.0898923 0.149687 0.325827 
0.0431231 0.379811 -0.102523 
-0.0746279 -0.958566 -0.175894 
-0.0467313 0.433126 -0.193336 
-0.051029 -0.000225075 -0.343898 
0.221723 0.081853 0.328085 
0.177171 0.111714 -0.343988 
-0.0314398 0.273947 0.0755565 
0.240662 0.116495 -0.0303906 
0.149427 0.121676 -0.142088 
0.183847 -0.492983 0.0336663 
-0.0729106 0.179676 0.347141 
-0.154817 0.272327 0.151089 
0.259977 0.0293294 0.0452938 
-0.0788163 0.278873 0.155107 
-0.0899467 -0.783952 0.189055 
0.226539 -0.0576987 -0.00179049 
0.0195247 -0.942498 0.175862 
0.0641878 0.116614 0.35057 
0.303267 -0.0441741 -0.00943509 
0.0639086 0.429271 -0.077403 
0.165494 -0.312212 0.01919 
-0.150243 -0.538036 -0.11011 
0.213652 -0.554729 -0.0526595 
-0.178259 0.0787315 0.353843 
0.0966169 -0.707515 0.110046 
-0.15435 0.237024 0.0449619 
-0.0949425 0.06535 0.335218 
0.233314 0.0589777 -0.232552 
-0.0711798 0.0709384 0.285098 
0.280079 0.0280102 -0.0918251 
-0.144614 0.236211 0.221738 
-0.385568 -0.020355 0.119783 
-0.171864 0.146791 0.374906 
0.202313 0.0192341 -0.085362 
0.300474 0.0859153 -0.130426 
0.0492156 0.322138 -0.18382 
-0.0243999 -0.907299 -0.210758 
-0.118535 0.127093 0.30751 
-0.343586 0.090713 0.00569657 
0.12124 0.111042 -0.138466 
-0.31198 0.12441 0.202272 
-0.0901263 -0.838279 -0.234181 
0.100889 -0.441093 -0.027066 
-0.124956 0.26367 -0.0167721 
0.0433233 0.0817338 -0.343232 
0.132705 -0.569307 0.023196 
-0.0235769 0.367036 -0.256814 
-0.0180032 -0.353398 0.135326 
0.128576 0.0875007 0.24448 
0.292984 0.0361578 -0.014733 
0.0202112 0.344729 -0.0774269 
-0.0199457 0.116303 -0.266404 
-0.221258 0.270575 0.0805934 
-0.108101 0.182042 -0.365088 
0.152531 0.181072 0.328418 
-0.0788138 0.408618 -0.179113 
0.333368 0.083913 0.0042505 
-0.0474744 0.137892 0.387396 
-0.0884724 0.463935 -0.160126 
0.060284 0.0828738 -0.297522 
0.000618794 0.3101 -0.0709532 
0.117004 0.164713 -0.222964 
0.0485779 -0.536631 -0.142316 
0.193389 0.0588008 0.00841764 
-0.198742 -0.818332 -0.190848 
0.349884 0.0919999 -0.0495891 
0.0130614 0.38974 -0.218058 
-0.138511 0.11804 0.238001 
0.25858 -0.0453572 -0.104303 
-0.309518 -0.00190661 0.173267 
-0.0797463 0.0168779 -0.276727 
-0.1322 -0.977056 0.133534 
-0.134044 0.250766 0.289786 
0.232318 0.175995 -0.201219 
-0.347797 0.168436 0.0772872 
0.0649778 0.160566 0.366021 
-0.00961208 -0.553553 -0.00880244 
0.232394 -0.0493818 -0.0668738 
0.168233 0.0743877 -0.208575 
0.18673 0.118906 0.31555 
-0.0543449 0.238088 0.357923 
0.0196201 0.164714 -0.297044 
0.0783793 -0.387386 0.0111749 
-0.271316 0.0521278 0.0849864 
-0.131897 0.191346 0.257962 
-0.182058 0.144196 0.263202 
0.156006 0.124098 -0.278697 
-0.117073 0.232379 0.0303668 
-0.214112 0.136202 0.326824 
0.016498 -0.213808 0.0822518 
-0.0490268 0.394819 -0.113077 
-0.0944085 0.243178 0.115864 
-0.0748814 -0.367422 0.0439046 
-0.0301781 -0.640419 -0.027638 
-0.0477853 -0.795038 0.0322561 
-0.020065 0.0567616 -0.390656 
-0.288024 0.0473624 0.0262539 
-0.122951 0.294243 0.164929 
0.165227 0.167722 -0.197284 
-0.257544 0.0927445 0.111119 
-0.253885 0.128637 0.0550083 
0.232686 0.0215825 -0.0262669 
-0.262569 -0.0196757 0.0476088 
0.239841 0.217842 -0.197296 
0.223719 0.0842122 -0.297529 
-0.000165511 0.372516 -0.18616 
-0.16762 -0.756909 -0.101909 
0.030422 0.213402 0.274472 
0.0820247 0.231684 0.325871 
0.0442309 -0.734632 -0.0766537 
0.0304602 -0.644588 -0.0278535 
0.265981 0.0482724 -0.264876 
0.204799 -0.413775 0.197111 
0.380539 0.0466386 -0.114703 
-0.274254 0.111778 0.132509 
-0.0182884 -0.804148 -0.016775 
-0.0583616 0.100924 -0.390903 
-0.0463611 0.0494178 -0.245172 
-0.0259506 -0.734632 0.116035 
-0.116986 -0.732593 -0.142523 
0.137121 -0.813453 0.172866 
0.0726401 0.125448 0.299594 
0.0489533 0.347871 -0.0485581 
-0.0347222 0.350521 -0.0502208 
-0.0421999 0.149465 0.316219 
-0.124672 0.285606 0.0962548 
0.00974206 0.404743 -0.0814724 
0.270601 0.14443 -0.245186 
0.0255159 -0.398583 0.0950879 
0.0875969 0.39073 -0.127276 
-0.105376 0.132989 -0.370605 
-0.00655971 -0.695174 -0.00969708 
0.200711 -0.0249357 0.0152494 
0.0620155 0.323324 -0.115357 
0.143126 -0.769768 -0.0566087 
0.0328437 -0.441588 -0.097752 
-0.240169 -0.555745 0.0697841 
0.0592655 -0.813739 -0.229168 
-0.0629525 -0.695302 -0.174916 
-0.167003 0.265084 0.235867 
-0.0493362 0.398489 0.0583036 
-0.383714 0.119862 0.134903 
-0.10068 0.372349 0.0806265 
-0.197675 0.196359 0.267823 
-0.0197979 0.00546568 -0.206501 
0.189001 0.127761 -0.181635 
0.107525 0.390727 -0.206522 
-0.154113 0.349815 0.0919872 
-0.0322451 0.0609754 -0.428231 
0.0451779 0.0790838 0.224656 
-0.358592 0.0379632 0.0452562 
0.201261 0.131737 -0.155432 
-0.327615 0.0513147 0.186441 
0.165851 -0.773695 -0.00884309 
0.1468 0.21303 -0.168094 
0.106095 0.119891 -0.269513 
0.0850393 -0.158354 0.0345183 
0.148792 0.185609 0.210922 
-0.0991361 0.0633346 -0.364966 
-0.0207424 -0.236353 0.100086 
-0.217732 0.00304723 0.115758 
0.0661924 -0.569746 -0.0377179 
-0.0378535 -0.925155 0.0954787 
0.247333 0.0878522 -0.0694892 
0.111681 0.0644631 0.216796 
0.0641101 0.488793 -0.0817106 
-0.0931132 0.128655 -0.252438 
0.10915 0.0787369 -0.23256 
-0.0194815 0.364073 0.12318 
0.103038 0.180492 0.270303 
0.173105 -0.815363 0.133664 
0.013703 0.337234 -0.174165 
-0.144672 0.206607 0.10074 
-0.0226188 0.0463255 -0.239177 
0.284094 -0.00189198 -0.0245689 
0.183868 0.0642393 -0.232595 
-0.116228 0.161089 0.249542 
-0.316621 0.0588147 0.137644 
-0.130657 -0.596472 -0.216654 
-0.408312 -0.0129642 0.170888 
-0.0596166 0.209226 0.112527 
-0.262246 0.0430178 0.175766 
0.217649 -0.00441737 -0.0156676 
-0.343582 -0.0124504 0.125441 
0.0944346 0.129993 0.215439 
0.16359 0.214394 -0.22875 
-0.101745 0.129051 0.22303 
-0.00795901 0.167189 0.314108 
-0.0195008 0.0842253 -0.346981 
0.157557 0.0437993 0.205597 
-0.0831601 0.190083 -0.28838 
-0.323019 0.06696 0.108068 
0.160827 -0.461537 0.0657058 
-0.131406 -0.732136 0.130627 
0.129053 0.230409 0.221524 
-0.0971441 0.29222 -0.014813 
-0.156873 0.122531 0.279223 
-0.163461 -0.317122 0.0649268 
0.341901 -0.0142404 0.0349247 
0.00588485 0.466612 -0.150073 
0.391767 0.0308548 -0.0133806 
0.129112 0.124304 -0.235764 
-0.0109182 0.364556 -0.101286 
-0.220676 -0.912919 0.0788834 
-0.025817 0.310538 0.0272195 
0.10685 -0.924835 0.135416 
-0.0248665 -0.839423 0.0178646 
-0.0599928 0.486996 -0.132759 
0.346791 0.0086695 -0.087852 
0.00730338 -0.958234 0.130237 
0.175919 0.237318 -0.189413 
0.284518 0.104773 -0.00839407 
0.179264 0.10502 0.267302 
-0.0627195 0.0825961 -0.297592 
-0.212188 -0.314998 0.10652 
-0.0908764 -0.579608 -0.0200293 
-0.360066 0.17155 0.0424273 
0.226339 0.133517 -0.00543432 
0.190907 0.124339 -0.223094 
0.0959577 0.0360263 0.236022 
0.291001 0.189199 -0.182395 
0.0676255 0.158363 0.183518 
-0.137837 0.215275 0.368568 
0.00087433 0.0996976 -0.313686 
0.112392 -0.430199 0.149216 
0.0319018 -0.734632 -0.131726 
-0.135687 -0.859104 0.204659 
-0.0311447 0.463314 -0.157856 
0.15256 0.112611 0.344428 
0.25581 0.0271379 -0.142138 
-0.13352 0.0585685 0.311956 
-0.195646 -0.732185 0.0444319 
0.238179 0.0749677 0.0313237 
0.0568132 -0.540098 0.0552109 
0.100353 0.104105 0.328678 
-0.0367436 0.178306 -0.319463 
0.192056 0.0303725 -0.263977 
-0.104104 0.255098 0.0613814 
0.0688001 -0.37852 -0.155359 
0.188319 -0.871178 0.0232313 
-0.0230288 -0.734632 -0.149326 
-0.0744149 0.218784 0.0244216 
-0.204019 -0.933297 -0.0935197 
0.331057 0.0499616 0.0305691 
-0.0443211 -0.414556 0.0983372 
0.177145 -0.0376849 -0.0145513 
0.276581 0.16252 -0.0812506 
-0.0428397 -0.623222 -0.181585 
-0.0920726 0.187843 0.249134 
-0.0742664 0.167978 0.317155 
-0.0630773 0.306922 0.188757 
0.279503 0.118278 -0.176589 
-0.020381 0.235675 0.0786211 
0.289672 0.0256671 0.0300999 
-0.0418246 -0.452822 0.0222588 
-0.10435 0.11824 -0.297724 
-0.151593 0.106307 0.328532 
0.17837 0.0675346 0.334047 
-0.00718956 0.338266 0.0643195 
0.0454517 -0.734632 0.0243978 
-0.0957808 0.0931599 -0.342985 
-0.171242 0.27821 0.0618856 
-0.171535 -0.960248 -0.0292938 
-0.142424 0.226492 0.00116514 
-0.226155 -0.922419 0.0297558 
-0.0167837 0.135724 -0.302496 
-0.228038 0.016121 0.0635618 
-0.267975 0.0220056 0.137923 
-0.064299 -0.612012 0.0562367 
0.238669 0.07709 -0.25709 
0.062784 0.0228602 0.162683 
-0.123225 0.200482 0.305735 
0.227574 0.165796 -0.169374 
0.240453 0.0657577 -0.027669 
0.171753 0.142713 -0.157817 
-0.0673206 0.368919 0.140422 
-0.271468 -0.810994 0.0580285 
-0.0198448 -0.696213 0.0530825 
-0.0782949 0.0348394 -0.318435 
-0.0236365 0.424508 -0.103473 
-0.102585 0.32901 0.175834 
0.0577632 0.0484578 -0.327489 
-0.0606216 0.376112 -0.206658 
0.219001 0.093753 -0.132406 
-0.0250471 0.313074 -0.208981 
0.0608286 0.0965929 0.254743 
0.17822 0.0468501 0.253105 
-0.166853 0.287908 -0.00962868 
-0.312244 0.107881 0.066219 
-0.0876256 0.138563 0.25125 
0.0520763 0.424981 -0.1484 
-0.111464 0.194224 0.20749 
0.0549925 0.371621 -0.23382 
0.00789614 0.103671 -0.375325 
0.295091 0.0227733 -0.125958 
0.0674224 -0.949967 -0.154916 
-0.12746 -0.734632 -0.0991389 
0.1505 0.109514 -0.119913 
0.029877 -0.938543 0.0919087 
-0.103013 0.308574 0.0345852 
-0.0794277 0.232427 0.145727 
-0.0882044 0.335295 0.0231603 
-0.07285 0.0465893 -0.248124 
0.23475 0.0351109 -0.106055 
0.15785 0.0340832 -0.193891 
-0.0598091 0.304478 0.0523577 
-0.175099 0.282133 0.0286512 
-0.0120414 0.0574031 -0.208108 
0.0754839 0.0684185 0.163899 
-0.246068 -0.821907 -0.131616 
0.105318 0.121124 -0.175875 
-0.161911 0.335223 -0.00682173 
-0.0995791 0.336523 0.142235 
-0.0294854 -0.0102481 -0.272639 
-0.127535 0.0994468 0.186489 
-0.403044 0.0131179 0.0959941 
0.0691047 0.475993 -0.132539 
0.187961 0.15787 -0.254359 
-0.229017 0.212125 0.259976 
-0.276241 0.164293 0.133475 
0.0486363 0.0899068 0.316242 
-0.0203822 0.167383 -0.272237 
0.174643 0.16292 0.230995 
0.346914 0.0350232 -0.00454904 
0.125958 0.206603 0.275763 
0.0893946 0.101896 0.190911 
-0.0862022 0.299152 0.111526 
0.0631963 0.413772 -0.180682 
-0.354129 0.0261448 0.0148603 
-0.163229 0.201086 0.0670425 
0.0619555 0.107522 -0.320956 
0.0241728 0.0157502 -0.244921 
0.0354041 -0.422475 -0.157199 
-0.07893 0.184113 0.0404289 
-0.164723 0.266376 0.280663 
0.0764339 -0.749246 -0.131676 
-0.00686194 0.202325 0.0191847 
-0.0962565 -0.734632 0.0928603 
-0.0766918 0.189923 0.276798 
0.056294 -0.310898 0.025487 
0.141901 0.184869 0.180164 
-0.0432653 0.235362 0.288761 
-0.256427 0.0344978 0.0321411 
0.1024 0.158673 0.231899 
-0.309582 0.0135441 0.0219163 
0.0816323 -0.493243 0.000390665 
-0.0779679 -0.877205 -0.0240002 
-0.0793455 0.252609 0.175157 
0.266741 0.136398 -0.0434342 
-0.0412027 -0.707708 0.0160808 
-0.218176 -0.505096 -0.0360004 
-0.0222843 0.37941 -0.167023 
-0.052215 -0.743196 -0.0150953 
0.198439 0.135843 -0.306578 
-0.0123182 -0.804516 -0.241333 
0.0291844 0.452007 -0.0651272 
0.023127 0.0254587 -0.419547 
-0.0121264 -0.754822 -0.0282895 
-0.0337222 0.279315 -0.000698984 
-0.0246062 0.34203 -0.162972 
-0.0973734 0.21663 0.0911718 
-0.160635 0.309794 0.165664 
0.00932314 0.0659992 -0.363445 
0.195844 -0.317 0.0503308 
0.00727084 0.338766 -0.233349 
0.195802 -0.0375834 -0.0766338 
0.10806 -0.734632 0.0217559 
-0.135364 0.112147 0.365033 
0.313687 0.108672 -0.259971 
-0.11687 0.0801238 0.385167 
0.04471 0.342603 -0.141347 
-0.0281086 -0.13616 -0.103217 
0.0683963 -0.929378 -0.0367164 
-0.074459 0.319601 0.152459 
0.18381 -0.43002 0.138299 
-0.363946 0.0133826 0.077508 
0.10401 0.177784 -0.284856 
-0.28804 0.0772984 0.0505816 
0.212589 0.10602 -0.0492276 
-0.172979 0.130487 0.297884 
-0.0370294 0.114797 -0.225112 
0.0817147 -0.747289 0.117705 
0.126158 0.212057 -0.275134 
-0.0377033 0.346 0.0540646 
-0.331094 0.0847915 0.168225 
0.0862985 0.18927 0.190307 
0.17631 0.0339525 -0.0470107 
-0.0840623 0.258272 -0.0195345 
-0.0813231 -0.600992 0.0136166 
0.359232 0.0655846 0.0482834 
-0.0051398 -0.706641 -0.061301 
-0.185616 -0.974952 0.0715419 
-0.232709 0.0258679 0.139322 
0.161496 0.190727 -0.202413 
-0.141273 -0.686278 0.159968 
0.335764 0.103958 -0.136115 
0.00196902 0.391068 -0.267677 
0.123011 0.0289594 -0.1779 
0.145677 0.173802 -0.28212 
-0.398668 0.0570908 0.0606015 
0.0437946 -0.622818 -0.0616414 
0.347883 -0.0218627 -0.0289847 
0.0890631 0.41187 -0.0961289 
0.0145127 -0.634585 0.00996209 
-0.17459 0.149022 0.225578 
0.062927 0.154191 0.222854 
0.118792 -0.576621 -0.0458662 
-0.379787 0.00389952 0.148486 
0.177942 0.132951 0.245537 
0.0412947 0.179196 -0.324624 
-0.00879424 -0.406303 -0.153395 
-0.0165735 0.411021 -0.0582741 
0.0149505 0.416052 -0.10509 
0.189573 0.192332 -0.210123 
-0.0633864 0.092663 0.330934 
-0.0324645 0.064407 -0.314573 
-0.119816 -0.469191 0.0161206 
0.0570017 0.428335 -0.121593 
0.132931 0.0671423 -0.284137 
0.0314886 0.305825 -0.20625 
-0.126397 -0.798951 0.202807 
-0.161951 -0.734632 -0.0454088 
-0.000418509 0.317411 -0.141183 
-0.208763 0.165684 0.254212 
-0.284591 0.127945 0.0649607 
0.154046 0.181873 -0.144649 
0.258644 0.0308486 -0.0301267 
0.244005 -0.0361041 -0.0336723 
-0.32537 -0.0178396 0.156529 
-0.113154 0.0392594 -0.308527 
-0.00313288 0.349803 -0.0602751 
-0.217438 0.171433 0.28973 
0.272934 0.0553408 -0.0263023 
0.145404 0.178231 0.253813 
-0.0550158 0.330681 -0.132562 
-0.023548 0.317077 0.133356 
0.273618 -0.0410341 0.0176591 
0.342107 0.0242894 -0.119604 
0.143098 0.035644 0.292903 
0.117147 0.0977368 -0.203967 
-0.147257 -0.952593 0.0609775 
0.146801 0.155945 0.270215 
-0.0270926 0.207606 0.0472734 
-0.0879829 0.226822 0.336345 
-0.0286264 0.0280302 -0.27456 
-0.274318 0.104538 0.172929 
-0.0825071 0.342275 -0.171596 
0.308783 -0.0244188 -0.0407344 
0.127084 0.130304 0.179402 
0.181272 0.0662377 -0.179882 
-0.0806758 -0.398739 -0.0334463 
0.221232 0.111804 -0.0905581 
0.228792 -0.279047 -0.0114559 
-0.0396757 -0.677693 0.188929 
-0.00477841 -0.366885 -0.047716 
0.0295002 0.399412 -0.17337 
0.22792 0.141122 -0.133796 
-0.220988 0.0575554 0.0971925 
-0.398883 0.0705785 0.0949233 
0.0356978 0.079363 -0.258158 
0.063867 -0.905832 0.170958 
0.0373753 0.137445 0.26482 
0.0539686 0.361539 -0.0825805 
-0.0485105 0.142354 0.260274 
0.0782216 0.184236 0.304384 
-0.103023 0.397782 -0.199718 
0.0784024 0.158297 -0.332447 
0.249125 0.133675 -0.186468 
0.0445377 0.138546 0.325348 
0.347596 0.0268471 0.0259648 
-0.100526 0.321543 0.0878864 
-0.0501422 -0.71185 0.157272 
0.299648 -0.0569648 -0.0617932 
0.109585 0.187883 -0.199617 
-0.258654 -0.859037 -0.0121097 
0.244563 0.0763461 -0.0959304 
-0.315187 0.0711777 0.192041 
0.0343736 -0.677693 -0.186632 
0.169287 -0.828821 -0.146115 
0.329381 -0.0279165 -0.0721025 
0.0489794 0.295704 -0.0916228 
-0.303161 0.124858 0.118277 
-0.0656238 0.329775 -0.205342 
-0.00275365 0.0304433 -0.292096 
-0.301046 0.152816 0.0873626 
0.182305 -0.557699 0.00605326 
0.184866 -0.846455 -0.0784719 
-0.0880019 0.397585 0.130385 
-0.127711 0.101052 -0.354732 
0.147519 0.0585508 -0.233254 
-0.104695 0.125496 0.387519 
-0.0507662 0.283139 0.0899056 
0.118888 -0.703183 0.0642685 
0.0127165 0.00250492 -0.299869 
0.203138 0.132201 0.201371 
-0.070831 -0.0809078 0.126264 
0.0216522 -0.165517 0.0946979 
0.0193707 0.119816 -0.239251 
0.204156 0.14065 0.293463 
-0.0316025 0.0338194 -0.355142 
-0.141845 -0.930193 0.159149 
0.189663 0.195567 -0.141138 
0.266618 0.0789699 -0.171963 
-0.0276396 0.234095 0.111449 
-0.0590757 0.15928 0.216561 
-0.355603 0.0811522 0.0414524 
0.101741 -0.725056 -0.0897774 
0.02272 0.28775 -0.0654487 
-0.101848 0.094513 -0.267159 
0.147817 0.155988 -0.224138 
0.256902 0.0131364 0.0135824 
-0.108365 -0.823626 0.227474 
0.108785 0.102409 0.282599 
0.0682209 0.36251 -0.136284 
-0.0229676 -0.421772 -0.0253527 
-0.0374995 0.0054872 -0.380036 
0.265122 0.092363 0.0142764 
0.115273 -0.542168 0.0628571 
0.0581255 0.043397 -0.400257 
-0.203971 0.188265 0.338381 
-0.0461884 0.103207 -0.358325 
-0.332576 0.0865468 0.0884987 
0.0918315 0.130903 0.264458 
0.118711 -0.484782 0.0654502 
-0.390684 0.0259433 0.135949 
0.215251 0.0992652 -0.219475 
-0.085771 0.250637 0.0151718 
-0.143726 0.132223 0.202099 
0.136217 0.133172 -0.168637 
-0.00257627 0.0627523 -0.251014 
-0.0637168 0.07015 -0.26105 
0.19479 0.10496 -0.24842 
0.320504 0.00978642 -0.0433291 
-0.08345 0.222542 0.275724 
0.113656 -0.763938 -0.115793 
-0.0565462 0.432997 -0.0688918 
-0.256838 0.07573 0.137358 
-0.0189999 0.0194272 -0.326038 
-0.295252 0.0407686 0.183024 
0.163917 0.125747 0.268764 
0.125675 0.115031 0.21572 
0.100595 0.112406 0.359866 
0.0557679 0.337718 -0.211564 
0.13319 0.0715046 -0.131667 
0.0266334 0.132457 -0.27899 
-0.0799984 -0.630878 -0.162982 
-0.0605839 0.258155 0.0410245 
0.151115 0.107766 0.291705 
0.218435 0.0268856 0.00509334 
-0.270866 0.00212414 0.112882 
-0.11 0.425666 -0.174799 
0.0963653 0.0358371 0.272756 
-0.311143 0.160773 0.0513929 
-0.125351 0.29706 0.00311958 
-0.123691 0.0541447 0.241864 
-0.386884 0.110037 0.0731326 
-0.156114 0.161358 0.244808 
-0.286568 0.145655 0.0329108 
0.141847 0.0593339 0.248694 
0.0608732 0.13803 0.240198 
0.31007 0.0352532 0.00448135 
0.0217718 0.123908 -0.347932 
0.310218 0.118148 0.0111788 
-0.111635 0.263558 0.147458 
-0.415888 0.113421 0.0312171 
-0.0339364 0.351504 0.087361 
-0.133274 0.139927 0.333112 
-0.0986326 0.117224 0.277827 
0.16722 0.197909 0.267788 
0.313758 0.0373255 -0.10103 
-0.126332 0.0955753 0.308454 
-0.200354 0.103136 0.310424 
0.249462 0.0812799 -0.205156 
0.0879985 0.439867 -0.12411 
-0.102321 0.0846299 0.222009 
0.129843 0.221737 -0.201172 
-0.129542 0.138807 0.28841 
-0.0634286 0.215072 0.0799119 
-0.108978 0.0714769 0.193958 
-0.046007 0.0905276 0.26439 
0.275135 -0.00157814 0.010274 
-0.140807 0.272168 0.0680411 
-0.123469 0.239056 0.313593 
0.20141 -0.0627979 -0.0208909 
-0.317328 0.146369 0.125745 
0.256118 0.1133 -0.239704 
-0.0751445 0.0449432 -0.378428 
-0.300981 0.0829269 0.00737064 
0.377633 0.0127526 -0.0999643 
0.00397801 0.459365 -0.217954 
0.0264408 -0.429357 -0.0513272 
0.17273 0.114791 -0.142809 
-0.0872581 0.29254 0.0530619 
0.225214 0.163503 -0.230962 
-0.0339589 0.242916 0.0281543 
-0.128703 0.152279 0.215749 
-0.0367791 -0.147014 -0.045073 
-0.0373997 0.0170241 -0.420875 
-0.274798 0.06364 0.11891 
-0.0893895 -0.734632 0.0284649 
-0.133332 0.19185 0.0678208 
0.200235 0.105791 0.296003 
0.281649 0.110551 0.0429049 
0.0284927 0.323034 -0.0504266 
-0.1617 -0.588503 -0.234739 
0.3696 -0.0439295 -0.0362295 
-0.0315675 0.33495 0.00769618 
0.206188 -0.0636909 -0.0560391 
0.0428056 0.0776877 0.25431 
-0.062261 0.330933 0.0365411 
-0.257608 0.0373671 0.0656968 
0.0269335 0.0537193 -0.327794 
0.202152 0.120671 0.337025 
0.0815462 -0.958616 0.0847672 
-0.0750377 0.385763 -0.144592 
-0.0502652 0.114456 -0.309856 
-0.0975582 -0.621308 -0.193625 
-0.108158 0.233624 0.220571 
0.0708801 0.053517 0.297259 
0.148304 0.201862 0.234274 
-0.0457051 0.473505 -0.0760641 
0.14959 0.155276 -0.306744 
-0.0803818 0.455339 -0.122566 
-0.153284 -0.947644 -0.14262 
-0.1229 0.222704 0.124092 
0.225964 0.0969099 0.284701 
0.213761 0.0813369 -0.263407 
0.08932 0.412588 -0.154115 
-0.301423 0.0835484 0.121056 
-0.0455385 0.194409 0.0850534 
0.0636263 0.0450824 0.243612 
0.00409101 0.386449 -0.111284 
-0.323524 0.0255156 0.0532781 
-0.195646 -0.719959 -0.0580654 
-0.317706 0.0818907 0.053699 
0.328304 0.0666031 -0.0591325 
-0.0513874 0.178296 0.0408152 
0.115613 0.0681046 0.263963 
-0.119947 0.33282 -0.00287006 
-0.192512 0.251038 0.0414161 
-0.126117 0.093886 -0.29226 
-0.103473 0.148522 0.354108 
0.135121 -0.759724 0.0301519 
-0.054288 0.116766 0.335692 
-0.0757665 0.247478 0.0972341 
-0.0586245 -0.692405 -0.0496388 
-0.0605798 0.116298 -0.265032 
-0.0860774 0.274753 0.122206 
0.0441427 0.143887 -0.312006 
-0.17013 0.184219 0.264407 
0.405919 0.0479447 0.00912317 
-0.0685257 0.138953 0.197367 
0.0461825 -0.923881 0.0636603 
-0.0597235 0.14889 0.292437 
-0.033756 0.220987 -0.308851 
0.00528131 0.0410609 -0.359765 
0.0542556 -0.792365 0.189141 
0.292573 0.0499724 -0.120286 
-0.193823 -0.980283 0.0070871 
-0.0120065 0.368312 -0.216578 
0.164823 0.189399 -0.29119 
0.144369 0.1696 0.297389 
0.134047 0.0720261 0.354986 
0.173081 0.0706508 0.299177 
-0.14869 0.0999276 0.226243 
0.130142 -0.930619 -0.110256 
-0.139307 0.102957 0.258882 
-0.0756681 0.00355646 -0.320606 
0.186165 0.0715169 -0.261844 
-0.0420409 0.404139 -0.159326 
-0.0284298 -0.571022 -0.0328823 
0.179457 -0.0118658 -0.041089 
-0.294933 0.0102349 0.196542 
0.0505371 -0.414006 -0.188094 
0.261625 -0.0113766 -0.096185 
-0.0161088 0.0868422 -0.248691 
-0.104139 0.180826 0.0607816 
0.0137102 0.0188833 -0.337816 
-0.300104 0.116191 0.148945 
-0.251855 0.0547085 0.151617 
-0.113531 0.344209 0.0388952 
0.0139142 -0.965536 -0.177021 
-0.235819 -0.791381 -0.0930304 
0.281832 0.083713 -0.0719422 
-0.0952038 -0.234124 0.0710477 
0.0159207 0.365667 -0.121022 
-0.103567 -0.557723 0.122976 
0.0241738 0.364653 -0.159496 
-0.101856 0.224447 0.0673366 
-0.0542197 0.253135 0.0761088 
-0.146207 0.129935 -0.364829 
0.13109 0.190224 -0.23114 
0.0303201 0.32491 -0.10024 
-0.205949 0.144965 0.368759 
0.31467 0.0255094 -0.140783 
-0.160453 0.248595 0.0739857 
0.165475 0.0616947 -0.286653 
0.187741 0.0478024 -0.148736 
-0.03782 -0.166389 0.118754 
0.00248609 0.215833 0.0605176 
-0.156719 -0.323351 0.146169 
-0.00169027 -0.664618 0.0951533 
-0.10521 0.400972 -0.136411 
0.0506609 0.140218 -0.381393 
0.103158 -0.795706 0.165908 
0.0469663 0.462914 -0.0966612 
-0.158325 -0.689497 -0.14643 
-0.379108 0.021821 0.109635 
-0.0657684 0.06635 -0.229391 
0.0538071 0.113211 0.279533 
0.144394 0.0991183 -0.276042 
-0.278854 0.023174 0.0828172 
-0.331065 0.0248094 0.131296 
-0.308307 -0.00194507 0.109423 
-0.0228239 0.313804 -0.0845497 
0.304068 -0.000320465 -0.107413 
0.216314 0.138152 -0.209711 
0.0819093 -0.682354 -0.144533 
-0.0304128 -0.737418 -0.0672879 
-0.290682 -0.0351295 0.134595 
-0.298587 0.00740105 0.131875 
-0.0156728 0.292997 0.105096 
-0.178521 0.213638 0.107582 
-0.0652606 0.0636685 -0.412975 
-0.0397678 0.262761 0.101007 
-0.236 0.110723 0.107128 
-0.12727 -0.972144 -0.154222 
0.161084 0.129409 -0.216711 
0.166232 0.0880999 0.358154 
-0.311025 0.0374455 0.111571 
0.253312 0.093003 -0.30112 
-0.111907 -0.5683 0.0797849 
-0.353493 0.0476309 0.107184 
0.115702 0.229115 0.25256 
0.159887 0.115 0.242047 
0.0662624 0.0563616 -0.357665 
-0.318132 0.0544631 0.0370427 
0.0559255 0.334739 -0.084752 
0.108953 0.412755 -0.122306 
-0.314081 0.0529393 0.0866287 
-0.05373 -0.237901 0.0937456 
-0.098507 0.13577 0.193048 
-0.0681562 0.0633385 -0.317699 
0.226142 0.0705208 -0.0516299 
0.170755 0.040434 -0.21776 
0.121751 0.0432217 -0.141315 
-0.02861 0.120884 -0.366748 
-0.0943595 0.145331 0.310661 
-0.0478628 -0.679317 -0.000383216 
0.0218923 0.133818 0.235534 
0.0270836 0.354739 -0.221685 
-0.055158 0.447213 -0.101937 
-0.0390766 0.34518 -0.223137 
-0.120509 0.187885 0.105196 
-0.403642 0.0631039 0.135194 
-0.0595798 0.259753 0.011153 
0.277517 0.0511001 -0.0702322 
-0.0400127 -0.51261 0.00152934 
0.0853439 -0.355915 0.00277251 
-0.105101 -0.586867 -0.235728 
0.276586 0.0127964 -0.0489935 
0.151314 0.0867776 -0.184248 
-0.199133 0.240938 0.102736 
0.212641 0.0806476 -0.198613 
0.145491 0.157517 0.228452 
0.239472 -0.0250157 -0.0764431 
-0.109152 0.23839 0.00646749 
-0.0886485 0.112983 -0.321909 
0.110566 -0.964042 -0.0336083 
0.0117864 -0.734632 -0.070704 
-0.205505 -0.774371 -0.0934327 
0.269112 0.00275413 0.0446109 
0.0824485 0.325584 -0.0997396 
-0.00944631 0.199756 -0.302453 
-0.0445283 0.0571593 0.0216537 
0.121349 0.100278 -0.253273 
-0.238195 0.107064 0.136197 
-0.344071 0.013991 0.167825 
-0.0820264 0.35652 0.108397 
0.306311 0.0990806 -0.2905 
-0.147518 -0.590578 -0.0094234 
-0.0334428 0.305949 0.054873 
0.0410187 0.404743 -0.0665042 
0.0165201 -0.722709 -0.158111 
0.122091 0.129889 0.241513 
-0.234352 0.161937 0.325318 
-0.051532 -0.786106 0.000972224 
-0.278114 0.136833 0.178302 
0.177069 0.194624 0.189724 
-0.0521249 0.367285 -0.115403 
0.0929438 0.181159 0.225168 
-0.169426 0.229136 0.267089 
-0.248893 0.0355602 0.0880764 
-0.271076 0.0873884 0.073865 
0.0779824 0.235242 0.288985 
0.182975 0.209284 0.337954 
0.0020624 0.0379124 -0.263378 
0.0737647 0.382662 -0.194005 
-0.102131 -0.897862 -0.0304717 
0.203192 -0.426973 0.164131 
-0.0230619 0.186059 0.0853288 
0.0983954 0.366449 -0.139541 
-0.0708263 0.383436 -0.088692 
-0.0892354 -0.505643 0.0222376 
-0.0399333 0.173332 -0.408665 
0.290244 0.0168141 -0.0634641 
0.140589 0.114181 -0.338049 
0.370632 0.0428632 -0.051886 
0.116756 -0.949869 0.108992 
-0.0839757 0.200295 0.0679789 
0.23132 -0.0620848 -0.0253744 
0.130984 0.0731223 0.187755 
0.265162 -0.0290834 -0.0555265 
-0.0122442 0.367672 -0.130617 
0.0260352 0.348188 -0.191667 
-0.0639328 0.409482 -0.206637 
-0.0113625 0.274888 0.0495956 
0.188734 0.0070572 -0.0553664 
0.295317 0.0893738 -0.181814 
-0.0456784 0.0422447 -0.318136 
-0.0519816 0.270568 0.142125 
-0.177904 0.219901 0.0441544 
-0.0647473 0.293271 0.0133099 
0.0710962 0.38734 -0.0963289 
0.19485 0.0800384 -0.0436861 
-0.0494925 0.317857 -0.070936 
0.0196051 0.0818022 -0.325452 
0.0449964 0.17178 -0.270485 
0.0782501 -0.487977 -0.0458782 
-0.312017 0.0923907 0.149872 
-0.0582401 0.327151 0.0752496 
0.275161 0.0557877 -0.235384 
-0.135126 0.170416 0.233916 
-0.163673 0.258412 0.0199126 
-0.150316 0.0753731 0.368446 
-0.142644 0.212892 0.136536 
-0.0381394 0.050727 -0.277096 
0.127601 0.134414 -0.285835 
-0.0537998 0.0272471 -0.263243 
0.354013 0.0991252 0.0351491 
0.038974 0.383766 -0.132946 
-0.227969 -0.852899 0.117719 
-0.0225462 0.102195 -0.290551 
-0.112834 0.207966 0.242243 
-0.290107 0.0171125 0.163941 
0.32411 0.0444901 -0.031387 
0.119054 0.11878 0.302682 
-0.0937977 0.0659839 -0.334486 
-0.123084 0.114033 0.282575 
-0.0704176 0.377622 0.0476017 
-0.0849672 0.251466 0.310155 
0.110614 -0.350442 0.0621355 
0.258168 0.192735 -0.197622 
-0.0916156 0.275658 0.0698456 
-0.237528 -0.00137044 0.0421669 
-0.35257 -0.0302726 0.141272 
-0.377463 0.0682315 0.194253 
0.101394 0.1043 0.255096 
-0.139398 0.1497 -0.305137 
-0.046726 -0.627417 -0.117591 
-0.0194944 0.304687 -0.174199 
0.0367876 0.160942 0.228592 
0.158834 0.136524 -0.255064 
0.147631 0.0578185 0.312079 
-0.0605044 0.100554 0.206926 
-0.191735 0.361493 0.0995218 
0.021104 0.0425001 -0.393421 
0.168233 0.133408 -0.323353 
0.104195 0.0777553 0.198004 
0.280573 -0.000923524 -0.0800337 
0.0807216 0.0980083 0.277427 
0.246662 0.0155448 -0.069961 
-0.255502 0.0608162 0.0479102 
0.145157 0.0873291 0.327768 
-0.286637 0.0619639 0.136919 
-0.172192 -0.580229 -0.0354124 
0.13363 0.060757 -0.192162 
-0.0422433 -0.389505 0.0800442 
-0.0893259 0.336626 -0.00533419 
-0.15809 0.129054 0.249408 
0.08053 0.31287 -0.130523 
0.283204 0.109524 -0.120051 
-0.0363874 0.131588 -0.278782 
0.0135637 0.354969 -0.0973804 
-0.0211256 0.374316 0.0529847 
-0.039158 0.191219 -0.254888 
0.238655 0.119331 -0.0660772 
-0.110575 -0.763508 0.157915 
-0.196066 0.284807 0.121743 
-0.0143759 0.415095 -0.173844 
0.0918431 -0.717677 -0.123287 
-0.1536 0.273721 0.0456403 
-0.00144766 -0.206023 0.106151 
-0.0920565 0.130376 -0.342871 
0.0161519 0.0168179 0.0257351 
0.25899 -0.0553541 -0.00534139 
0.155085 -0.326244 0.0779526 
0.190579 0.165703 -0.181105 
0.232819 -0.012765 0.0156561 
-0.0907339 0.30387 0.162295 
-0.0128847 0.351691 -0.189423 
0.213464 0.109507 -0.17787 
0.00963383 0.0621523 -0.305637 
0.347331 0.00719028 -0.0111077 
0.227158 0.202739 -0.180988 
0.181611 0.092556 -0.320449 
0.0150986 0.0898938 -0.234049 
-0.129752 0.287241 0.193519 
0.0713832 -0.717754 0.124106 
0.0971946 0.0606347 0.247992 
-0.106427 0.178384 -0.331276 
-0.311958 0.154697 0.206847 
0.0123053 0.0690008 -0.446213 
-0.265835 -0.0384141 0.0752734 
-0.00206781 0.041454 -0.426383 
-0.0782619 0.138603 0.379394 
0.0730962 0.476304 -0.162854 
0.0868131 -0.533625 0.0371067 
-0.159123 0.19466 0.289308 
0.0152796 -0.619988 0.234287 
0.180347 -0.442811 0.0934879 
0.209576 0.0150664 -0.0442842 
0.318274 0.0575462 -0.130966 
-0.0357948 -0.819698 -0.0362876 
0.0123057 0.308744 -0.170082 
-0.00133481 0.469977 -0.0833305 
-0.000894891 -0.134744 -0.082399 
-0.0949171 0.0157949 -0.302002 
0.0515456 0.0834453 0.187576 
0.234146 0.122586 -0.162439 
-0.0847871 0.0850492 0.35601 
0.372717 0.113317 -0.0672979 
0.100402 0.0597939 0.164478 
0.245856 0.0931222 -0.0242116 
0.068087 0.345674 -0.187094 
0.217118 0.0571654 -0.00944784 
-0.137535 0.261741 0.173556 
0.234698 -0.0287403 -0.0140227 
-0.0987904 0.0417078 -0.252206 
0.0134964 0.409392 -0.0558254 
-0.248903 0.0547701 0.124662 
0.0871323 -0.947655 0.133918 
0.0466687 -0.449892 0.00179762 
0.114493 0.372299 -0.169422 
0.211003 0.17607 0.274759 
0.228935 0.124446 0.296639 
-0.122771 0.279824 0.0548498 
0.0420135 0.05948 -0.305277 
-0.0748613 0.164425 0.247581 
0.0912377 0.12724 0.384121 
-0.0681748 0.205224 0.329553 
0.233224 -0.0109466 -0.0357429 
0.0628224 0.0831422 -0.269242 
-0.0884828 -0.616135 -0.22566 
-0.0411468 0.00374721 -0.248751 
-0.297157 0.0695462 0.230997 
-0.13455 0.207327 0.0294172 
-0.039111 0.151287 -0.30676 
-0.0615677 0.115858 0.260832 
-0.351858 0.141134 0.0657348 
-0.379836 0.0516993 0.108104 
0.186728 0.0912314 -0.151369 
0.0399179 0.0852492 -0.383611 
-0.117955 0.256816 0.0924526 
-0.00842032 0.448538 -0.131183 
0.274953 0.0164295 -0.00546526 
-0.233962 -0.783411 -0.0644336 
-0.123082 0.32108 0.155799 
-0.0635653 0.197538 0.054485 
0.0327183 0.17917 0.256077 
-0.255436 0.111621 0.0814334 
0.0509133 0.361653 -0.11635 
0.207449 0.111231 -0.328462 
0.239151 0.182304 -0.272418 
-0.151616 0.241776 0.112767 
0.34021 -0.00614427 -0.0540747 
-0.426133 0.0479493 0.0823803 
0.226562 0.0477332 0.0314805 
0.183259 0.13457 -0.205759 
-0.0732878 -0.734632 0.074208 
-0.0668827 0.174381 -0.329607 
0.217869 0.117968 -0.293425 
0.0603017 0.0488478 0.17683 
0.0315995 -0.593338 -0.0411362 
0.297437 0.149671 -0.225188 
-0.0855896 -0.712384 -0.166931 
0.105679 0.134214 -0.2339 
0.137286 0.0914968 0.213266 
0.16069 0.0712784 0.266356 
-0.0373333 -0.686191 -0.082005 
-0.148008 -0.881594 0.19029 
0.174683 0.101266 -0.224078 
0.152557 0.206048 0.351877 
0.00142987 0.311143 -0.11265 
0.268549 0.0465078 -0.107553 
-0.0299822 0.127517 0.305412 
-0.17924 -0.534517 -0.109586 
-0.0733994 0.174306 0.402582 
-0.0881674 0.440211 -0.0988243 
-0.0985253 0.0915922 0.282865 
-0.0826273 0.1344 0.285375 
0.264926 -0.026915 -0.0240431 
0.2349 0.218247 -0.15987 
0.232081 -0.0336949 -0.107567 
0.118691 0.0501324 0.197763 
-0.0584944 0.425208 -0.161273 
-0.0954356 0.172156 0.290161 
-0.225041 0.0459401 0.119751 
-0.328807 0.0268479 0.0829672 
0.202216 0.213668 -0.188583 
0.281855 0.0336548 0.00645518 
0.104948 0.0648808 0.291192 
-0.0916923 0.216091 0.0415421 
0.177554 0.0890353 0.246753 
-0.128742 0.230825 0.386155 
-0.0836351 0.380036 -0.114441 
-0.0436116 0.0732492 -0.396384 
-0.339644 0.0923584 0.21966 
-0.153482 0.208754 0.220736 
0.0723655 0.0344263 0.219154 
-0.229289 0.0793076 0.144917 
-0.0569367 0.206656 0.293579 
-0.413436 0.131784 0.155084 
0.00600861 0.242043 0.0790495 
-0.18549 0.133302 0.326558 
-0.207949 0.0350309 0.0933518 
0.216058 0.0803453 -0.154449 
-0.0781369 0.265081 0.0785734 
-0.165357 0.102804 0.362717 
-0.00942647 0.0766838 -0.313493 
-0.093569 0.404225 0.0239453 
-0.394742 0.0313325 0.171031 
-0.0761259 0.405789 0.0513218 
-0.340917 0.0581093 0.153452 
-0.0163083 0.249358 0.0528203 
-0.419355 0.0872891 0.0423386 
0.103878 -0.58674 -0.0110587 
0.0773654 0.156079 0.295635 
-0.0234089 0.161277 -0.425858 
-0.197956 0.267494 0.0644362 
0.0579732 -0.504079 -0.0339275 
0.0242771 0.473524 -0.129415 
0.0786524 0.13266 0.199022 
-0.148885 0.288111 -0.0308593 
0.15093 0.223625 -0.254851 
-0.030402 -0.6893 -0.195683 
-0.0373036 0.172014 0.311009 
-0.139147 -0.538794 0.145428 
-0.0852993 0.0754161 -0.429382 
0.09512 0.105751 -0.244938 
0.253766 0.134499 -0.220976 
-0.291597 -0.00988348 0.147485 
-0.154517 0.281499 0.124266 
-0.0401123 0.204484 0.250795 
-0.0253282 0.0264848 -0.253382 
0.226026 0.159753 0.294102 
0.307276 0.135684 -0.25457 
-0.0178645 0.223187 0.286428 
0.168147 0.116768 0.192208 
-0.0680446 0.176595 0.37478 
0.229328 0.109024 0.327389 
-0.332793 0.120525 0.00384427 
-0.0908962 -0.862704 0.21073 
0.250895 0.120241 -0.105634 
0.113498 0.173646 0.218138 
-0.00654117 0.0262525 -0.220166 
-0.295047 0.0629162 0.100381 
-0.36189 -0.0192442 0.104566 
-0.00902324 0.00910026 -0.272647 
0.214085 0.144121 -0.346139 
0.265356 0.139814 -0.164172 
0.219773 -0.00421428 -0.0787545 
0.185632 0.0307625 0.00847494 
-0.103637 0.0946122 0.331788 
0.200871 0.174768 -0.156375 
0.332149 -0.000742006 -0.111685 
-0.123757 0.254516 0.230922 
-0.137375 -0.708083 -0.147489 
-0.00477641 0.0623516 -0.284313 
0.280938 0.0336348 -0.0412752 
-0.413979 -0.0164619 0.143695 
0.0508563 0.0729461 0.295157 
0.108518 0.0749084 -0.191538 
-0.116467 0.204645 0.27891 
0.08516 0.213209 0.208056 
-0.108002 0.045757 -0.281859 
0.0911046 0.444958 -0.0968297 
-0.18314 0.118634 0.252904 
-0.056019 0.00784336 -0.301313 
-0.0492425 0.341173 -0.182841 
-0.0401152 0.223696 0.338891 
0.231492 0.079653 -0.0162045 
0.218194 0.0786761 0.253876 
-0.147551 0.152366 0.314083 
-0.0663655 0.20196 -0.335195 
-0.191599 0.302215 0.0459487 
0.328382 -0.0332549 -0.099245 
-0.0260359 -0.462387 0.00165359 
0.0744116 0.0638615 0.225081 
0.21051 0.06537 -0.243016 
0.0855477 0.125701 0.241879 
-0.00480641 -0.355563 -0.0843136 
-0.339283 0.0634992 0.0841064 
0.173431 0.14605 -0.27466 
-0.424245 0.0487832 0.0458093 
-0.142064 0.13187 0.354799 
0.288162 0.0754292 -0.268745 
-0.199148 0.228292 0.288911 
-0.126575 0.0808246 -0.316559 
0.202947 0.0947991 0.366479 
-0.0113838 0.236205 0.0076201 
-0.30041 0.0392017 0.0494801 
-0.1649 0.380039 0.0939079 
-0.0317167 0.251903 0.350484 
0.00442816 0.148829 -0.270218 
-0.123967 0.301596 0.05486 
0.0719355 0.130095 -0.333097 
0.137057 -0.50156 0.053686 
-0.123632 0.0534162 -0.357395 
-0.0536326 -0.604665 -0.164434 
0.0411225 0.101519 -0.288295 
-0.0106057 0.329938 0.112905 
-0.132273 0.311225 0.0963902 
-0.0744447 0.325295 -0.11401 
0.0383085 0.105915 0.239838 
0.0705247 -0.808838 0.204407 
-0.0321149 0.425526 -0.141076 
-0.107704 0.146089 -0.303205 
0.329178 0.0540724 0.0575405 
0.117465 0.0344102 0.254367 
-0.0789715 0.379262 0.166695 
-0.0593571 0.30982 -0.0951012 
-0.115718 -0.61684 -0.227301 
-0.192102 0.156913 0.298592 
-0.0107606 0.347944 -0.21507 
0.100784 0.144348 0.361984 
-0.071481 0.20129 0.00893625 
-0.300424 0.175992 0.137667 
0.264465 0.119417 -0.022382 
-0.136435 0.201594 0.344655 
-0.0501594 0.0298425 -0.209335 
0.141107 0.103708 -0.215198 
-0.0618628 0.125755 -0.243547 
0.0411342 0.387375 -0.207884 
0.144667 0.111626 -0.163114 
-0.01742 0.31785 -0.234497 
0.233105 0.0432355 -0.253098 
-0.172113 0.128444 0.349544 
-0.0405524 0.076183 -0.340404 
0.20165 0.0454032 -0.0788027 
-0.114038 -0.280425 0.0323611 
-0.0601072 0.270451 -0.0174645 
-0.194128 0.220173 0.128539 
-0.0802388 0.108376 -0.291188 
0.0179034 -0.419923 -0.137043 
-0.378784 0.0239725 0.0559244 
0.209494 0.0819384 0.299594 
0.0927115 0.0981683 -0.181388 
-0.0601084 0.178283 -0.295123 
0.180389 0.214826 -0.207929 
0.0516417 0.299575 -0.117428 
0.0772108 0.0911399 0.325188 
0.22593 0.051787 -0.19781 
-0.112091 0.20228 0.0756803 
0.309409 -0.0087712 -0.0789743 
0.069287 0.109303 0.206766 
-0.0675171 0.201522 0.25463 
0.310013 0.0752369 0.0418199 
0.376656 0.00408799 -0.0748008 
-0.110904 0.133466 -0.276904 
-0.0476637 0.0813953 -0.244462 
0.0777385 0.361462 -0.209548 
-0.146587 0.141857 0.227431 
-0.0628216 0.15677 0.338265 
-0.133062 -0.329655 0.135969 
-0.221511 0.202534 0.283525 
-0.0646076 0.0947453 0.381087 
0.16988 0.0648392 0.231241 
-0.0848558 0.166392 -0.306312 
-0.0705276 0.0717992 0.258628 
-0.0675349 0.443943 -0.17765 
0.0515402 0.113063 0.323818 
0.194508 -2.96876e-05 0.0216575 
-0.221567 0.0889222 0.103197 
0.241711 0.112264 -0.00231601 
0.199489 0.0494862 -0.292626 
0.285804 0.112816 -0.229664 
-0.0538996 0.360351 -0.0768001 
-0.216907 0.14493 0.27548 
-0.287353 0.109388 0.109762 
-0.0286448 0.0837353 -0.30524 
-0.0706547 0.118099 0.22632 
0.384937 0.0219494 0.0104249 
0.0886839 0.201613 0.263943 
0.0704616 0.134669 0.323148 
-0.0239789 0.0159472 -0.297657 
0.0597409 0.167286 0.312304 
-0.0125328 0.364403 -0.0771524 
-0.0637978 0.267659 0.112126 
0.0427961 -0.718819 0.134348 
0.298973 0.0694231 -0.222829 
0.140246 0.110068 0.315772 
-0.0656541 -0.83252 -0.241417 
-0.408049 -0.00524736 0.0780542 
0.0707147 0.204736 0.289984 
0.300952 0.15784 -0.0894543 
-0.0257496 0.393265 -0.0869689 
0.138507 -0.886983 -0.148744 
-0.0534779 0.400165 -0.0735172 
-0.101512 0.219549 0.150931 
-0.217762 -0.0119104 0.0871503 
0.20525 0.153995 -0.133533 
-0.103947 0.27494 0.0438525 
-0.0791813 -0.752158 0.15232 
-0.210722 0.221384 0.326108 
0.035283 0.451474 -0.137699 
0.259436 0.0587562 -0.0495988 
0.230405 0.00941641 -0.0508609 
0.136014 0.196543 -0.201031 
-0.243002 -0.000551226 0.120325 
0.0007721 0.0182625 -0.408568 
0.175671 0.153845 -0.217401 
-0.035047 0.394994 -0.245778 
-0.0509342 0.260612 0.165971 
-0.11603 -0.573739 -0.0188288 
0.082187 0.17684 0.37639 
0.0995876 0.13582 0.184193 
-0.118333 0.110887 0.225303 
-0.314848 -0.0150281 0.129751 
0.0366302 0.095836 0.206947 
0.0716424 0.0641869 -0.312456 
-0.131122 0.258728 0.00779364 
-0.188376 0.275847 0.158843 
0.211109 0.0850422 -0.332763 
-0.012179 0.178763 -0.410651 
0.286659 0.135004 -0.119816 
0.145606 0.0325586 -0.222178 
-0.0873081 0.281788 0.00652864 
0.0437718 0.154212 0.345695 
0.165503 0.102008 0.322253 
-0.174326 -0.770568 -0.122603 
-0.336485 0.0260356 0.18855 
-0.00296642 0.483747 -0.133141 
0.178633 0.0449709 -0.247686 
-0.418299 -0.0142112 0.118506 
-0.0674893 0.131591 -0.325537 
0.0524602 0.147221 0.273485 
0.107953 0.15083 -0.290162 
-0.034514 0.0841207 -0.440753 
0.193363 0.186679 0.259486 
0.0141526 0.291115 -0.12234 
0.0984753 0.0840368 0.252146 
-0.283476 0.166664 0.0998333 
0.00397886 0.18951 -0.283202 
-0.312986 0.132388 0.0734842 
-0.0448745 0.293311 0.0698376 
0.152384 0.0732746 0.200708 
0.17718 0.119624 -0.237131 
-0.233477 -0.0376634 0.0902972 
0.135717 0.119571 -0.263452 
0.00564792 -0.734632 0.1069 
0.405828 0.0273171 -0.0343498 
0.0510048 0.41921 -0.096942 
0.247155 0.0404301 0.0162595 
-0.0890074 0.201806 -0.348189 
-0.019335 0.19024 0.34413 
0.108971 0.149886 0.258121 
0.175737 0.223837 -0.249254 
-0.199402 0.169333 0.365735 
-0.0507496 -0.693316 -0.0213816 
-0.239005 0.0355209 0.168791 
0.27814 0.0806284 -0.00421585 
0.38706 0.107746 -0.0421569 
-0.0223288 0.362596 -0.230898 
-0.143857 0.0960845 0.286564 
0.0401398 0.0585493 -0.388554 
-0.113491 0.374775 -0.197765 
-0.208326 0.177417 0.315912 
0.0426403 0.116439 -0.384758 
0.0631886 -0.727996 -0.128 
-0.283697 0.104091 0.0478614 
-0.0142594 0.479369 -0.224376 
-0.0988598 0.239162 0.29297 
